# .PCD v0.7 - Point Cloud Data file format
VERSION 0.7
FIELDS x y z
SIZE 4 4 4
TYPE F F F
COUNT 1 1 1
WIDTH 1735
HEIGHT 1
VIEWPOINT 0 0 0 1 0 0 0
POINTS 1735
DATA ascii
-3.380454 0.513292 3.597520
-3.265030 0.382838 3.592948
-3.169192 0.345907 3.313935
-2.748891 0.453385 3.528240
-2.700261 0.402407 3.620779
-2.610741 0.326721 3.560212
-2.451398 0.441011 3.581654
-2.174675 0.419898 3.879290
-2.153472 0.379244 3.916746
-1.993801 0.470180 3.876178
-1.967171 0.436653 3.931654
-1.433612 0.420295 4.234059
-1.451394 0.411876 3.931642
-1.447432 0.535130 4.191126
-0.141700 0.504214 4.618209
0.034212 0.650083 4.765466
0.031824 0.659812 4.767967
0.116196 0.596353 4.734691
0.340177 0.535660 4.473972
0.666095 0.716212 4.713367
0.726247 0.643448 4.765177
0.660092 0.677821 4.741400
1.018239 0.749069 4.475124
1.027727 0.661190 4.481419
1.302814 0.865687 4.404604
1.347814 0.766005 4.431807
1.556224 0.917770 4.500371
1.585554 1.077154 4.380170
1.609920 0.890312 4.016276
1.973273 1.032269 4.052680
2.027465 1.094367 4.030529
2.145061 0.941084 3.782947
2.205297 1.109892 3.640910
2.333850 1.145887 3.522015
2.471795 1.223525 3.391566
2.670664 1.208029 3.309942
2.822163 1.244087 3.089569
2.842129 1.179632 3.197776
3.105096 1.363956 2.792398
3.085659 1.265450 3.041086
3.504138 1.386732 2.521566
3.307198 1.483278 2.630389
3.627699 1.367876 2.586781
3.698613 1.443676 2.599892
3.899097 1.458667 2.222622
3.735299 1.546192 2.261152
4.038153 1.537135 1.882161
4.110503 1.539761 1.918732
4.537464 1.726147 1.463972
4.325372 1.767306 1.531063
4.480182 1.607664 1.462924
4.599718 1.796629 1.522836
4.768383 1.613133 1.185204
4.963498 1.873080 1.423789
4.993866 1.902111 1.081647
5.187800 1.950551 1.148086
5.349376 1.949761 1.009626
5.483244 2.114660 1.115689
5.743031 1.949910 1.323407
5.805801 1.936486 1.244965
5.938334 1.814792 1.372127
6.143006 2.040301 1.485192
6.222349 2.141109 1.416052
6.640538 1.989163 1.678739
6.539327 1.973962 1.659089
6.973636 2.039741 1.802115
6.738136 2.165996 1.796420
7.284231 2.275580 2.210347
7.432718 2.034371 2.066410
7.579888 2.079881 2.123333
7.697549 2.195882 2.095333
7.824482 2.069270 2.239279
8.177787 2.222609 2.242069
8.051105 1.990984 2.032941
8.295170 2.102813 2.192822
8.530651 2.392966 2.313106
8.522569 2.252315 2.097163
8.883597 2.421613 1.793824
8.858827 2.321925 1.982907
8.751138 2.539786 2.103406
9.166871 2.377419 1.595247
9.328164 2.463595 1.572900
9.441436 2.590806 1.289790
9.413159 2.674446 1.213948
9.570353 2.421764 1.134615
9.808259 2.756749 0.915862
9.826679 2.610485 1.152803
10.051211 2.664702 0.504039
10.057000 2.874472 0.699525
10.370910 2.901281 0.262857
10.365693 2.764006 0.334551
10.531390 2.800630 0.109569
10.487717 2.864723 0.264296
10.759498 2.988197 -0.072061
10.745769 2.926141 -0.336829
10.990464 3.172259 -0.296767
11.074597 3.056374 -0.250236
11.176719 3.005632 -0.516059
11.216334 3.002437 -0.724915
11.310328 3.188560 -0.820117
11.524415 3.118389 -0.994709
11.546155 3.408764 -1.326196
11.840855 3.290245 -1.386765
11.837962 3.467684 -1.387681
11.993144 3.317425 -1.627037
12.174008 3.522089 -1.793897
12.314474 3.397812 -1.722810
-7.905462 0.046850 1.674150
-7.874836 -0.040445 1.644447
-7.700504 0.165195 1.598726
-7.521677 -0.031205 1.841666
-7.315114 0.165038 2.008613
-7.197223 0.085622 2.099543
-6.856816 0.101738 2.011211
-6.879978 0.125647 2.081537
-6.587792 0.175457 2.169492
-6.412981 -0.010703 2.283556
-6.425060 0.266427 2.281317
-6.190288 0.248067 2.356361
-5.879267 0.138367 2.417238
-5.880594 0.296851 2.571282
-5.808544 0.280120 2.347405
-5.612507 0.220064 2.542190
-5.367514 0.371036 2.672072
-5.121746 0.465068 2.903395
-4.940613 0.428802 2.814902
-4.818259 0.295671 2.878471
-4.806344 0.449873 2.763421
-4.400043 0.286824 3.045558
-4.456911 0.470252 2.984045
-4.223379 0.472777 3.069882
-3.980890 0.314344 3.315078
-3.949809 0.572405 3.187454
-3.668127 0.445954 3.280504
-3.578602 0.502012 3.285549
-3.336441 0.374700 3.408034
-3.269651 0.492462 3.534518
-3.065401 0.505764 3.651083
-2.692970 0.267218 3.675749
-2.614887 0.503359 3.583612
-2.607980 0.421764 3.805973
-2.543691 0.552192 3.862675
-2.319970 0.470642 3.934314
-2.034920 0.506958 4.162568
-1.837177 0.372628 3.977933
-1.837168 0.614449 4.053676
-1.682780 0.583820 4.171699
-1.450807 0.598046 4.138800
-0.021745 0.711634 4.614882
-0.151873 0.731471 4.716097
-0.077289 0.848835 4.656559
0.204261 0.598501 4.615987
0.380380 0.797325 4.738980
0.554660 0.857462 4.903546
0.635666 0.667030 4.759948
0.759623 0.747688 4.756252
0.978415 0.904331 4.632497
1.072956 0.738111 4.572440
1.220084 0.796186 4.388370
1.461754 1.027464 4.304633
1.429440 1.073099 4.512542
1.654941 0.882695 4.080846
1.845222 1.188655 4.082608
1.953428 1.262331 3.947735
1.887545 1.132635 3.848434
2.194010 1.309313 3.816141
2.396251 1.374759 3.736044
2.328911 1.335333 3.538374
2.474743 1.341842 3.591402
2.727820 1.350772 3.022064
2.724922 1.302196 2.933124
2.976155 1.259398 3.097746
3.138146 1.249622 3.015987
3.164483 1.401840 2.935768
3.147871 1.519140 2.853238
3.451236 1.778456 2.552979
3.545024 1.652478 2.503266
3.625468 1.632966 2.427079
3.789697 1.479569 2.110200
3.964896 1.687546 2.259212
4.027986 1.822752 1.868690
4.153758 1.635064 1.911018
4.309476 1.981601 1.913923
4.367910 1.852333 1.650643
4.533705 1.892913 1.527803
4.663204 1.955891 1.494726
4.637016 1.897041 1.762591
5.012919 1.993624 1.258760
4.955175 1.940151 1.359347
5.064254 1.944706 1.227440
5.256667 1.926849 0.900256
5.423897 2.014924 1.123435
5.740921 2.160461 1.484948
5.923231 2.080898 1.342025
6.076832 2.198444 1.551221
6.053930 2.084020 1.543114
6.553761 2.164073 1.828050
6.635171 2.168206 1.644363
6.683571 2.318966 1.884800
6.906764 1.979765 1.852034
7.026317 2.221078 1.988359
7.286523 2.176809 1.987609
7.605612 2.279131 2.377218
7.688067 2.354288 2.356008
7.772992 2.133044 2.109064
7.872861 2.263159 2.308597
8.078521 2.357732 2.488582
8.116469 2.446595 2.334917
8.369968 2.581585 2.359105
8.373453 2.230394 2.105596
8.513466 2.419324 2.129839
8.795796 2.376157 2.000034
8.817416 2.504971 2.041226
8.820190 2.508652 2.096337
9.129023 2.615108 1.727424
9.246567 2.669655 1.415190
9.408289 2.740188 1.154984
9.469071 2.678417 1.407901
9.520175 2.847500 1.417880
9.641279 2.886551 1.368539
9.838666 2.898614 1.003452
9.994172 2.881912 0.809905
9.933084 2.861103 0.809465
10.105512 2.930550 0.742126
10.282580 2.963034 0.402383
10.434338 3.070185 0.378962
10.571808 3.272503 -0.100852
10.782201 3.152934 -0.184376
10.828959 3.252804 -0.191515
10.896260 3.371394 -0.407704
10.982385 3.334814 -0.301627
11.110788 3.553588 -0.488722
11.281077 3.362739 -0.590558
11.447117 3.585272 -0.892017
11.675479 3.220947 -1.135661
11.631963 3.533597 -1.206790
11.729493 3.493424 -1.239360
11.995746 3.466108 -1.538454
12.050365 3.714948 -1.617434
12.165573 3.800534 -1.716207
12.326393 3.589915 -1.950156
12.236660 3.817400 -1.984579
-7.746212 0.175338 1.742459
-7.854544 0.336895 1.739553
-7.619564 0.411603 1.894349
-7.313268 0.370956 2.122511
-7.032536 0.171938 2.052602
-7.121195 0.188500 2.197262
-6.869026 0.322925 2.001193
-6.663486 0.428269 2.105394
-6.618451 0.311992 2.053708
-6.484787 0.329915 2.172311
-6.198589 0.451819 2.196456
-5.926693 0.299258 2.395256
-5.745880 0.306177 2.385744
-5.666980 0.685086 2.816006
-5.505696 0.378566 2.739107
-5.441904 0.419501 2.578051
-5.261921 0.350887 2.570931
-4.936714 0.289566 2.769098
-4.649562 0.480816 2.914133
-4.664931 0.710964 3.126899
-4.421916 0.414259 3.022186
-4.482772 0.722552 2.957245
-4.259660 0.532701 3.165783
-4.064242 0.531911 3.053663
-3.785232 0.550183 3.333825
-3.578128 0.512384 3.413589
-3.702315 0.549267 3.308908
-3.479564 0.585435 3.535387
-3.180801 0.574780 3.405287
-2.970861 0.638010 3.686363
-2.885128 0.618890 3.779317
-2.855096 0.721498 3.580213
-2.597920 0.605667 3.614461
-2.302332 0.748019 3.708609
-2.109712 0.538846 4.110062
-2.053849 0.694223 3.984888
-1.814240 0.639328 4.153349
-1.917938 0.573783 3.828741
-1.571979 0.684921 4.129442
-1.498959 0.887374 4.200441
-0.052698 0.739396 4.817055
0.088917 0.835812 4.850056
0.076268 0.842858 4.555034
0.376525 0.926842 4.976128
0.502094 0.897584 4.839624
0.487827 0.971118 5.006392
0.807913 0.959218 4.892810
0.903168 0.955756 4.639834
1.017716 0.842094 4.608385
1.207998 1.081602 4.625588
1.326056 0.916095 4.552328
1.550278 1.101239 4.580934
1.692911 1.177914 4.168181
1.732887 1.229644 4.121970
1.926619 1.303604 4.105470
1.944380 1.318950 4.022026
2.202027 1.330632 3.938763
2.314915 1.383534 3.650533
2.332357 1.482928 3.572019
2.496927 1.379581 3.491953
2.611048 1.431338 3.279739
2.732087 1.656791 3.373337
2.735797 1.507913 3.197868
3.047657 1.554621 3.080729
3.153070 1.525989 2.656227
3.314470 1.642650 2.839301
3.449670 1.703223 2.807575
3.584448 1.625426 2.679354
3.608094 1.864417 2.671038
3.919063 1.694657 2.250959
3.872504 1.773764 2.254436
4.051794 1.902168 2.198738
4.323104 1.777249 2.001247
4.301105 1.847580 2.021432
4.534823 1.927459 1.693048
4.483599 2.008426 1.749305
4.661669 2.052496 1.417990
4.769291 2.387200 1.219479
4.817448 2.052808 1.547530
5.016777 2.313628 1.232863
5.179018 2.266542 1.084509
5.232438 2.356423 1.143914
5.509418 2.426215 1.384675
5.635171 2.345227 1.435174
5.803279 2.244307 1.466333
5.880945 2.295592 1.328057
6.172024 2.334758 1.571547
6.453020 2.284801 1.681349
6.499772 2.365120 1.839656
6.619934 2.221506 1.815716
6.643834 2.350071 1.717821
6.891274 2.349324 1.996894
6.989170 2.293672 1.968738
7.314322 2.382237 2.100259
7.411202 2.346556 2.021981
7.754553 2.329401 2.336136
7.918964 2.247940 2.252401
7.878652 2.509772 2.437145
7.859407 2.332720 2.166673
8.355873 2.550785 2.551025
8.489454 2.475432 2.299018
8.501464 2.598782 2.320503
8.704139 2.597854 2.404440
8.706380 2.712797 2.133100
8.975072 2.465869 1.969921
9.166828 2.652273 1.785467
9.217009 2.731800 1.696739
9.377543 2.689681 1.522714
9.410029 2.690601 1.415556
9.675911 3.014480 1.264664
9.667930 2.993917 1.054526
9.853651 3.008510 0.937389
9.949000 3.035550 0.810356
10.102367 3.016410 0.665825
10.242957 3.073076 0.355041
10.209986 3.059780 0.622376
10.405254 3.127047 0.043329
10.688924 3.119361 -0.248068
10.722994 3.252877 0.070258
10.845134 3.280203 -0.200961
10.873134 3.209333 -0.395941
10.957106 3.384569 -0.410057
11.075379 3.394546 -0.362152
11.305958 3.533717 -0.873642
11.378300 3.422173 -0.996885
11.511759 3.593586 -1.401284
11.641429 3.650780 -1.255003
11.674913 3.846187 -1.419242
11.828331 3.531383 -1.324974
12.003754 3.670462 -1.586784
12.112418 3.907856 -1.717876
12.242932 3.900901 -1.810004
-7.841324 0.202126 1.737472
-7.947416 0.337784 1.736894
-7.682680 0.611157 1.939636
-7.559988 0.390700 1.816314
-7.560008 0.334274 1.759856
-7.401226 0.530747 2.089889
-7.334150 0.463791 1.892824
-6.829391 0.502002 2.217628
-6.627567 0.418803 2.473398
-6.489726 0.554490 2.254926
-6.540390 0.552228 2.166674
-5.913464 0.645791 2.583750
-6.107308 0.543348 2.308382
-5.905174 0.560987 2.644462
-5.644365 0.623479 2.888350
-5.609884 0.616176 2.610904
-5.526419 0.587774 2.612730
-5.277971 0.691142 2.881619
-4.974495 0.330466 2.793627
-4.849746 0.721552 2.984052
-4.593116 0.488165 3.153292
-4.722508 0.704911 2.941073
-4.394039 0.453175 3.136094
-4.572871 0.774751 3.213808
-4.090756 0.613424 3.307827
-3.917529 0.748557 3.256374
-4.068249 0.841848 3.181555
-3.391355 0.789058 3.650963
-3.399465 0.850928 3.444195
-3.187086 0.800310 3.740571
-3.257893 0.830667 3.554870
-2.787978 0.795312 3.630143
-2.718511 0.738790 3.724930
-2.479501 0.653255 3.925609
-2.538110 0.796549 3.732484
-2.280179 0.749506 3.911277
-2.034992 0.850260 4.054478
-1.897244 0.804812 4.095558
-1.867638 0.880013 4.097196
-1.549768 0.770971 4.312800
-1.603461 0.833024 4.090302
-0.112809 1.029779 4.793164
-0.087581 1.076138 4.792067
-0.026287 0.883477 4.768774
0.134422 0.928878 4.868418
0.433084 1.126202 4.993603
0.331507 1.127145 4.937723
0.520392 1.020678 4.975782
0.885395 1.056928 4.888192
1.047277 1.206791 4.971887
1.080510 1.176324 4.882836
1.110249 1.065949 4.761641
1.310292 1.338097 4.798421
1.618754 1.155742 4.368028
1.746476 1.230093 3.966648
1.636313 1.566430 4.318132
1.812821 1.388181 4.186348
1.948829 1.330408 4.032787
1.995420 1.679015 4.017385
2.239073 1.554883 3.776400
2.385972 1.407557 3.468718
2.379557 1.703810 3.977222
2.618801 1.539017 3.401665
2.493709 1.500270 3.613555
2.771869 1.523820 3.257834
2.965617 1.496213 3.287836
3.080589 1.901096 2.888965
3.426630 1.999180 2.852215
3.314572 1.694854 2.738122
3.469465 1.801255 2.859792
3.626835 1.878889 2.320034
3.691570 1.850781 2.309394
3.839590 2.116805 2.381237
4.069472 2.129900 2.437769
4.303555 2.132889 1.675444
4.271469 2.064189 1.840918
4.461881 2.176006 1.507740
4.480253 2.133283 1.803590
4.539644 2.016153 1.768731
4.860829 2.305759 1.281960
5.019298 2.409599 1.333769
5.178744 2.472445 1.147013
5.155396 2.415442 1.145776
5.307220 2.343997 1.076430
5.442731 2.301070 1.272160
5.602240 2.281368 1.422682
5.895146 2.351692 1.317400
5.924548 2.536962 1.633161
6.078219 2.494956 1.600649
6.088892 2.479897 1.595642
6.393438 2.666241 1.792768
6.546330 2.528118 1.877820
6.586339 2.580331 1.796372
6.957196 2.531066 2.048866
7.192260 2.507155 2.007192
7.314745 2.346532 2.247844
7.415306 2.480271 2.231291
7.576853 2.464977 2.465168
7.853011 2.429757 2.593203
7.945809 2.617690 2.582176
8.213855 2.595945 2.805394
8.332820 2.549812 2.776584
8.310836 2.529573 2.796406
8.512682 2.663234 2.303375
8.735506 2.807200 2.303679
8.761650 2.681961 2.205937
8.806308 2.615630 1.940569
9.130695 2.921990 1.878190
9.294188 2.924609 1.779213
9.343336 2.753461 1.594044
9.244167 2.937628 1.471779
9.586410 2.816726 1.546588
9.745212 3.014564 1.318967
10.013455 2.990257 0.874485
9.908837 3.273070 1.072980
10.142638 3.266355 0.608402
10.165711 3.179995 0.553746
10.239122 3.292887 0.327009
10.429628 3.285198 0.247096
10.525828 3.340083 0.020022
10.602159 3.395343 -0.151606
10.686722 3.534627 0.074452
10.861867 3.536941 -0.218486
10.900494 3.600025 -0.316556
11.210931 3.407735 -0.522967
11.365747 3.584448 -0.694659
11.267909 3.591529 -0.592750
11.560237 3.949229 -1.047387
11.654756 3.655134 -1.073916
11.710052 3.836112 -1.452511
11.958060 3.652384 -1.366432
11.992897 3.828284 -1.436691
12.155564 3.912499 -1.843870
12.223957 4.050117 -1.631105
-7.973182 0.532263 1.868038
-7.912920 0.313645 1.650787
-7.535435 0.583498 1.792850
-7.610914 0.892805 2.005037
-7.397771 0.621576 1.986580
-7.203601 0.595533 2.159994
-7.026432 0.564038 2.137880
-7.013137 0.603432 2.047974
-6.837748 0.504474 2.203838
-6.539176 0.620128 2.199572
-6.413617 0.707493 2.513333
-6.344155 0.769860 2.428950
-6.247028 0.586376 2.275608
-5.963849 0.775829 2.589192
-5.577924 0.811744 2.841202
-5.668691 0.715024 2.725149
-5.395309 0.723378 2.620983
-5.071914 0.628867 2.873987
-4.934716 0.831789 2.793128
-4.910618 0.858910 2.947284
-4.593246 0.784182 3.095194
-4.445445 0.675681 3.135686
-4.290914 0.771491 3.187275
-4.324242 0.711192 3.102446
-4.144019 0.651916 3.251260
-4.040460 0.664245 3.209319
-3.667011 0.806956 3.334594
-3.586218 0.971049 3.460850
-3.429001 0.756998 3.596703
-3.302047 1.019817 3.547076
-3.101985 0.676365 3.645950
-2.891987 0.796015 3.905739
-2.568486 0.912122 3.822083
-2.542399 0.722827 3.910588
-2.676536 1.072043 3.833691
-2.354260 0.963082 4.079551
-2.102747 0.967753 4.058605
-2.152242 1.056660 4.028118
-1.936117 0.929975 4.106371
-1.624902 1.063392 4.136735
-0.302847 1.091883 4.672774
0.032904 0.983695 4.839558
0.045048 1.189196 4.966576
0.210245 1.230996 4.890752
0.477662 1.053867 4.993752
0.765154 1.076727 5.212621
0.777811 1.222032 5.098404
1.033750 1.229164 4.815058
1.071217 1.367926 4.850541
1.096521 1.364410 4.636236
1.141268 1.304946 4.852974
1.471637 1.509785 4.557546
1.418150 1.284297 4.397930
1.601865 1.530393 4.262512
1.963382 1.491341 4.020983
1.890132 1.472769 4.250387
2.087714 1.657286 3.962713
2.015795 1.660614 4.001009
2.326947 1.671510 3.567220
2.337137 1.802176 3.811470
2.623224 1.783485 3.251559
2.814322 1.824837 3.377650
2.661169 2.030451 3.466547
2.910340 1.975436 3.161066
3.051226 1.814141 3.225699
3.322318 1.793378 2.778640
3.374834 1.858529 2.783275
3.380187 1.893964 2.626944
3.629470 1.978910 2.548583
3.824620 2.284817 2.247212
3.786203 2.168440 2.213862
3.902974 2.227683 2.148842
4.147459 2.263731 2.120364
4.152775 2.289340 1.962437
4.326099 2.308997 1.702783
4.338960 2.370527 1.929220
4.602960 2.285226 1.549110
4.808468 2.462102 1.393232
4.859151 2.606780 1.448642
4.933970 2.446746 1.360402
5.142267 2.599067 1.069810
5.190586 2.499415 1.169832
5.588186 2.513464 1.390765
5.728365 2.577275 1.356262
5.905819 2.722949 1.500424
6.054202 2.630441 1.653623
6.130599 2.631607 1.598201
6.431685 2.568849 1.924922
6.537701 2.467297 1.998166
6.606031 2.693533 1.978225
6.833504 2.767990 1.950951
6.891736 2.688529 1.948192
6.940500 2.709518 2.034397
7.510135 2.663371 2.544238
7.457205 2.447929 2.356838
7.717896 2.790466 2.611417
7.849879 2.824209 2.573924
7.944323 2.693624 2.703392
8.277180 2.677259 2.724981
8.251784 2.558128 2.785438
8.404243 2.738133 2.711109
8.610550 2.640888 2.558066
8.648687 2.805376 2.378443
8.999133 2.915096 2.033845
9.027298 2.914633 1.955122
9.067880 2.873090 1.881080
9.067963 3.069218 1.774060
9.319856 3.121037 1.623757
9.388785 2.999838 1.346034
9.371143 3.131247 1.379857
9.623793 3.099916 1.215724
9.892505 3.316234 0.882618
9.908276 3.325267 0.971430
10.009354 3.313270 0.695107
10.169752 3.533116 0.800142
10.233393 3.439226 0.601800
10.304204 3.326583 0.416698
10.556725 3.655915 0.061293
10.652218 3.622426 -0.186134
10.872955 3.454858 -0.175645
10.759797 3.711027 -0.408668
10.859091 3.586746 -0.417842
11.190640 3.688280 -0.600769
11.150713 3.732330 -0.599922
11.420880 3.706008 -0.565272
11.519969 3.690038 -0.952667
11.439211 3.820356 -0.804485
11.720129 3.768269 -0.997003
11.819921 3.899824 -1.302005
11.785137 4.032731 -1.401881
12.084475 4.090983 -1.710149
12.257077 4.059764 -1.905714
12.226591 4.158763 -1.903044
-7.794998 0.760218 1.952880
-7.851907 0.891837 1.791217
-7.547987 0.663668 1.856486
-7.531000 0.690923 1.909752
-7.276599 0.803156 2.054539
-7.070937 0.666989 2.041847
-6.890330 0.696330 2.152944
-6.499965 0.592830 2.480893
-6.436818 0.642573 2.579927
-6.778580 0.661496 2.257627
-6.296905 0.697587 2.418003
-6.178930 0.842015 2.455801
-5.940204 1.060050 2.693087
-5.620522 0.753271 2.843174
-5.647437 0.824943 2.638007
-5.400724 0.823245 2.833864
-5.130888 0.887977 2.867064
-5.131108 0.976495 2.743750
-4.791369 1.014269 3.046080
-4.735900 0.849204 3.223052
-4.464573 0.979882 3.101881
-4.253330 0.825257 3.116002
-4.384334 1.054787 3.044674
-4.042037 0.937481 3.410957
-4.129545 0.964571 3.438647
-3.903110 1.176172 3.469980
-3.498862 1.120018 3.629254
-3.367617 1.127641 3.511814
-3.335488 0.964186 3.598438
-3.266674 1.161194 3.578178
-2.975655 1.063391 3.636138
-2.698928 1.176644 3.843958
-2.622121 1.114937 3.731938
-2.289440 1.027576 4.137267
-2.222816 1.058858 3.989279
-2.238407 1.091711 4.000207
-2.198678 1.151049 4.022896
-1.782081 1.313333 4.198707
-1.540297 1.028109 4.217504
-0.372144 1.279499 4.867411
-0.168883 1.329782 4.850476
-0.102015 1.216913 4.851837
0.303299 1.144080 5.036696
0.502629 1.329224 5.335849
0.241972 1.076233 4.922572
0.643409 1.327206 5.192768
0.807703 1.400807 5.119565
0.681224 1.444356 5.176607
1.240894 1.473570 4.633669
1.113372 1.423905 4.721654
1.305190 1.513146 4.818145
1.588713 1.473894 4.283049
1.522248 1.877243 4.250068
1.639006 1.621137 4.205166
1.884216 1.762071 3.988825
1.748209 1.769105 4.155488
2.246763 1.793816 3.933497
2.257751 1.899769 3.895227
2.321215 1.752871 3.628178
2.422554 1.997279 3.700836
2.658040 1.807771 3.553717
2.632933 2.027104 3.411512
2.875018 2.108272 3.053803
2.978932 1.922524 3.206844
3.258025 2.113573 2.816061
3.199199 2.068313 2.905251
3.375614 2.089969 2.605012
3.415473 2.039211 2.847991
3.562160 2.243407 2.629545
3.639799 2.171851 2.624233
3.828371 2.351105 2.343683
4.048948 2.297439 2.062859
4.016607 2.494065 2.299111
4.082381 2.400023 2.159973
4.454904 2.228586 1.810650
4.405863 2.330712 1.744849
4.505997 2.437768 1.700594
4.568229 2.708800 1.624801
4.796434 2.417506 1.479797
4.926632 2.548360 1.285028
5.316107 2.820575 1.302372
5.049858 2.691601 1.102429
5.340053 2.744318 1.442147
5.757691 2.576394 1.418346
5.851495 2.949009 1.549180
5.991305 2.904544 1.571205
6.015153 2.907825 1.608591
6.202297 2.707510 1.473776
6.390045 2.754290 1.807663
6.556172 2.735904 1.845914
6.889438 2.692632 2.100380
7.082162 2.696590 2.208623
7.064486 2.797897 2.304348
7.191051 2.846595 2.365721
7.579519 2.870887 2.388007
7.718694 2.761719 2.452160
7.696956 2.910504 2.538264
7.933433 3.009056 2.554101
8.032394 2.834100 2.708506
8.336034 2.818632 2.521305
8.312116 2.888266 2.672174
8.633873 3.025516 2.427206
8.694439 2.868932 2.214341
8.808408 3.125922 2.411989
8.893563 3.146377 2.212903
8.970588 3.120655 1.887158
9.057130 3.155474 1.776473
9.299555 3.078236 1.695099
9.344908 3.308856 1.446104
9.555727 3.292181 1.281438
9.703765 3.367938 1.073373
9.684851 3.279244 1.083227
9.756019 3.280210 0.921144
9.972396 3.538007 0.971250
10.027024 3.492757 0.821963
10.336760 3.573947 0.566573
10.257948 3.517497 0.451774
10.380835 3.457351 0.472818
10.615062 3.649663 -0.176582
10.748472 3.522694 0.025915
10.825931 3.829296 -0.258873
10.945104 3.717076 -0.365265
11.009112 3.845194 -0.298023
11.203775 3.944459 -0.855746
11.360334 3.904631 -0.822782
11.509686 4.050466 -0.766077
11.584599 3.807861 -0.994268
11.768237 4.226145 -1.328450
11.802800 3.986885 -1.274996
12.012696 4.224110 -1.569336
12.178766 4.227733 -1.727193
12.102044 4.135258 -1.565616
-8.100984 0.901888 1.671019
-7.853645 0.827299 1.758998
-7.802827 0.764279 1.911521
-7.629583 0.834078 1.965511
-7.624091 0.949651 1.918981
-7.320018 0.776344 2.079581
-7.133333 0.638877 1.999908
-6.899689 0.830017 2.167909
-6.958994 0.765905 2.224617
-6.545879 0.771044 2.342659
-6.366560 1.091059 2.533437
-6.525991 0.944110 2.325342
-6.215406 0.931212 2.421254
-5.834966 0.962756 2.788730
-5.709500 0.805506 2.616201
-5.655402 0.965230 2.813134
-5.481106 0.976764 2.633343
-5.355921 1.141932 2.797375
-5.092866 1.015021 2.919533
-4.907689 1.157517 2.989330
-4.781123 0.886948 3.222564
-4.555081 0.982881 3.092908
-4.616046 1.099727 3.056734
-4.224054 1.136786 3.208436
-4.124202 1.323366 3.325338
-3.910937 1.054112 3.505719
-3.667307 1.276666 3.527870
-3.774567 1.086525 3.422092
-3.403026 1.015040 3.858902
-3.394257 1.131565 3.557098
-2.998612 1.260335 3.735817
-2.891210 1.179347 3.696180
-2.901735 1.208566 3.725218
-2.658535 1.204688 3.982660
-2.553089 1.161377 3.905813
-2.287600 0.975971 3.895215
-2.109482 1.353719 4.220738
-2.086410 1.204370 4.076092
-1.900544 1.210813 4.276557
-1.588792 1.322463 4.341901
-1.578534 1.444401 4.248776
-0.009379 1.551857 5.052649
0.062626 1.584807 4.783609
0.059706 1.504205 4.966576
0.327963 1.542271 4.939207
0.352141 1.578588 4.999468
0.439190 1.291138 5.020346
0.738296 1.450903 5.054338
0.868968 1.785639 4.835744
0.959090 1.501326 4.975413
1.190265 1.749466 4.683990
1.368585 1.665046 4.775050
1.400207 1.867979 4.582512
1.575770 1.777273 4.523930
1.541870 1.841029 4.327863
1.747036 1.684894 4.165151
1.736615 1.927713 4.279317
2.116482 1.926581 3.837512
2.183611 1.939599 3.799937
2.267824 1.939073 3.612485
2.410103 1.960927 3.648878
2.582648 2.113975 3.529558
2.659457 1.843795 3.459762
2.834803 1.984181 3.201007
2.980738 2.298859 3.128536
2.987655 2.278258 3.032306
3.126676 2.214677 2.965582
3.361818 2.366532 2.794512
3.331851 2.264521 2.901754
3.770902 2.292329 2.463437
3.670381 2.317250 2.456113
3.720697 2.576177 2.335842
3.936713 2.537660 2.344871
4.009775 2.380680 2.213652
4.201576 2.467925 1.975077
4.272416 2.655148 1.966389
4.425073 2.377768 1.988626
4.534947 2.677809 1.618449
4.773161 2.712853 1.405455
4.817651 2.734860 1.453219
4.960560 2.773509 1.345692
5.042904 2.945186 1.136423
5.072322 2.701734 1.138853
5.438904 2.958058 1.482711
5.628714 2.703116 1.440398
5.924516 2.708949 1.740123
5.953493 2.857729 1.679778
6.154052 2.799521 1.884479
6.465403 2.913448 1.933244
6.713264 2.868791 2.078158
6.690920 2.836696 2.057548
6.567066 2.928462 1.840168
6.997570 2.900536 2.233002
7.319959 3.102783 2.451719
7.356278 2.987594 2.376257
7.416007 2.807035 2.459172
7.664055 2.956279 2.508990
8.019805 2.897958 2.778234
7.857020 2.993098 2.464289
8.180929 2.947649 2.736163
8.052297 3.157596 2.531975
8.337199 3.073171 2.642870
8.454591 3.182477 2.439419
8.610072 3.174800 2.354291
8.696469 3.257029 2.318291
8.885423 3.290870 2.194790
9.020273 3.197550 1.899005
9.098138 3.387888 1.752613
9.136171 3.458446 1.794617
9.427680 3.281541 1.564154
9.664161 3.618292 1.251611
9.458566 3.340426 1.223018
9.780445 3.464134 1.049670
9.855007 3.511373 0.851782
9.876276 3.707067 0.962233
10.161804 3.600044 0.500835
10.125975 3.682373 0.720109
10.317966 3.771827 0.315046
10.405472 3.689615 0.103615
10.499954 3.894634 0.174548
10.521037 3.816040 -0.001304
10.822039 3.897587 -0.201760
10.868593 3.758527 -0.142486
10.994283 4.076540 -0.144684
11.128607 3.948544 -0.673842
11.234872 3.957814 -0.468915
11.519086 3.981777 -0.709685
11.464525 4.173679 -0.947233
11.583084 4.070340 -1.091521
11.687256 4.341741 -1.214782
11.927090 4.435932 -1.426366
11.885293 4.418134 -1.340613
12.298248 4.346947 -1.849393
-7.927990 0.877175 1.955122
-7.939542 0.984369 1.857048
-7.865034 1.072228 1.889193
-7.462312 0.984903 2.176437
-7.387667 1.022533 2.025528
-7.351819 0.946922 2.038932
-6.920221 1.055998 2.280432
-6.901903 0.854656 2.131626
-6.804527 1.026714 2.179655
-6.409842 1.172586 2.502143
-6.477792 0.982377 2.288891
-6.107387 0.973779 2.498480
-6.049576 1.175148 2.723059
-5.826231 1.122994 2.823719
-5.625684 1.187792 2.816159
-5.549221 1.159838 2.712477
-5.678975 1.160380 2.864867
-5.289800 1.227319 2.848438
-5.408112 1.358240 2.867633
-5.073217 1.233371 3.034660
-4.563878 1.217324 3.263411
-4.640115 1.076607 3.078539
-4.651113 1.213828 2.984105
-4.255467 1.192249 3.232042
-3.973698 1.383566 3.397239
-4.078846 1.213770 3.555321
-3.897877 1.389767 3.434459
-3.657685 1.255057 3.323699
-3.567886 1.137116 3.579685
-3.433165 1.358058 3.793232
-3.156515 1.199667 3.763882
-3.076838 1.403923 3.888092
-3.116153 1.374722 3.666401
-2.711644 1.242358 3.738224
-2.539700 1.437296 3.926187
-2.629590 1.378372 4.007660
-2.091358 1.502326 4.146802
-2.055730 1.385043 4.146747
-1.799568 1.522871 4.305948
-1.604144 1.365210 4.403771
-1.612102 1.415417 4.245119
-0.221839 1.559836 4.980388
-0.037356 1.617290 4.992760
-0.211740 1.897705 4.816360
-0.023554 1.518033 4.928259
0.247603 1.612049 4.944883
0.412525 1.770790 5.065067
0.577648 1.661416 4.973307
0.602378 1.619314 5.090452
0.999342 1.788395 4.907563
0.920610 1.645333 4.873951
1.195023 1.813667 4.718364
1.208256 1.967713 4.427391
1.469375 1.828475 4.524899
1.428319 1.849300 4.491407
1.470085 1.885742 4.524998
1.735407 2.145015 4.124670
1.963077 1.914914 4.033698
2.049650 2.081015 3.941575
2.080163 1.976083 3.772337
2.168802 2.105729 3.824107
2.423329 2.203612 3.605562
2.477572 2.132437 3.423971
2.593249 2.271015 3.311690
2.828062 2.377490 3.146108
2.918577 2.403922 3.018304
3.004219 2.457724 3.100071
3.065921 2.471534 2.916779
3.171396 2.553215 2.587529
3.331185 2.507810 2.922233
3.594550 2.652801 2.430226
3.412647 2.456580 2.687555
3.818002 2.532736 2.448625
3.976034 2.477688 2.127262
4.022602 2.602495 2.352346
4.367775 2.585805 1.859223
4.188852 2.597546 1.888197
4.292380 2.884870 1.785470
4.567188 3.035365 1.598742
4.654702 2.859834 1.735921
4.689490 2.845237 1.268737
5.009133 3.008233 1.185965
5.114616 2.864423 1.279322
5.091598 3.139260 1.209494
5.317290 3.019714 1.125055
5.470022 2.916557 1.524646
5.808451 2.997566 1.610162
5.787862 3.140064 1.533670
6.001466 3.145561 1.682885
6.270392 3.215935 1.830000
6.353531 2.930464 1.927426
6.577785 3.041550 1.999959
6.714147 3.116581 2.061538
6.863416 3.258419 2.161636
7.047823 3.278414 2.259991
7.022133 3.125542 2.154680
7.226810 3.071995 2.402430
7.493565 3.295951 2.281026
7.678575 3.347808 2.387306
7.744480 3.144106 2.485072
7.958691 3.327333 2.492291
8.099472 3.161900 2.581089
8.274187 3.080946 2.695797
8.404836 3.259369 2.602742
8.578534 3.367687 2.250719
8.743116 3.445412 2.105674
8.894856 3.564245 1.925369
8.975345 3.581292 2.002609
9.118215 3.562763 1.525296
9.224481 3.680246 1.712323
9.268293 3.311270 1.703410
9.455476 3.449696 1.483748
9.491056 3.701441 1.285037
9.879185 3.628122 1.206314
9.759870 3.692559 1.136597
10.108727 3.763717 0.634405
9.947889 3.956007 0.896435
10.179968 3.763561 0.641836
10.236385 3.815667 0.444319
10.566601 4.112429 0.109968
10.548462 3.957877 -0.061882
10.758984 4.026521 -0.186407
10.728214 4.045063 -0.077994
10.935563 4.157597 -0.234886
11.031891 4.116156 -0.334181
11.227110 4.133676 -0.760480
11.205810 4.105938 -0.531682
11.450419 4.049238 -0.779774
11.568698 4.167653 -1.267863
11.652902 4.350017 -1.226271
11.742205 4.033918 -1.315148
11.950784 4.279604 -1.372612
11.999840 4.475775 -1.566270
12.040380 4.330131 -1.613677
-7.976685 1.053404 1.915813
-7.998764 1.113339 1.795788
-7.610500 1.309429 1.971206
-7.677472 1.233535 2.010224
-7.527220 1.106487 1.989977
-7.183718 1.321509 2.114721
-6.924473 1.248899 2.225858
-7.013891 1.155227 2.071554
-6.479089 1.294598 2.325278
-6.488922 1.263638 2.510198
-6.333963 1.303474 2.594150
-6.275896 1.223705 2.530049
-5.918599 1.109371 2.521515
-5.759220 1.242479 2.824588
-5.817129 1.358652 2.730792
-5.240334 1.417818 3.012700
-5.434928 1.332170 2.964404
-5.146937 1.256414 2.868866
-5.182419 1.411533 2.895093
-4.805524 1.236734 3.183277
-4.697367 1.457331 3.175877
-4.460409 1.398066 3.238737
-4.312668 1.543023 3.544580
-4.276855 1.340560 3.347939
-4.034550 1.506188 3.404046
-3.986040 1.398898 3.335731
-3.646445 1.456863 3.493351
-3.305929 1.551421 3.760356
-3.217207 1.449870 3.935481
-3.199764 1.387070 3.633552
-3.278887 1.437809 3.521174
-2.939888 1.665663 3.915600
-2.742128 1.418174 3.959978
-2.737204 1.424769 3.987897
-2.467132 1.426165 4.019118
-2.275165 1.418255 4.172610
-2.162307 1.385189 4.034027
-2.046372 1.674364 4.249729
-1.814043 1.650864 4.333011
-1.690645 1.717872 4.356739
-0.348553 1.436493 4.834004
-0.314711 1.980480 4.693620
-0.184530 1.748622 4.939313
0.064613 1.843041 5.002358
0.132737 1.701019 4.950164
0.464263 1.782290 4.928878
0.455193 1.713458 4.958767
0.665005 1.986708 4.955255
0.865390 1.786882 4.882197
1.044520 1.834294 4.782722
0.946615 2.006397 4.690724
1.189990 2.092491 4.558835
1.284293 1.856109 4.505344
1.516913 2.010783 4.626580
1.637374 2.186271 4.298603
1.657538 2.057465 4.196492
1.794416 2.223407 4.178885
1.854440 2.282223 4.003313
2.214130 2.299252 3.883162
2.219675 2.288001 3.567407
2.321717 2.276158 3.691994
2.587048 2.068634 3.557232
2.622606 2.536427 3.398658
2.661342 2.589741 3.402317
2.722803 2.317785 3.138622
2.970781 2.418267 2.950951
3.226955 2.439603 2.771237
3.167582 2.796482 2.639397
3.510295 2.582720 2.613533
3.534559 2.756425 2.575485
3.708270 2.701127 2.566557
3.800000 2.726187 2.167053
3.841994 2.622714 2.511207
3.966443 2.873905 2.178236
4.068863 2.929384 2.154500
4.132236 3.097699 1.873805
4.579253 2.907841 1.833378
4.502292 3.040300 1.665984
4.574269 2.867437 1.447584
4.690555 3.033148 1.462011
5.032133 3.171160 1.168508
5.082857 3.127083 1.244913
5.261356 3.202280 1.277343
5.126759 3.261715 1.256289
5.602053 3.107609 1.495203
5.819087 3.146431 1.655247
5.925080 3.264219 1.645690
6.143000 3.153699 1.819511
6.155808 3.230119 1.921718
6.448567 3.350569 1.982021
6.584458 3.336859 1.846741
6.572820 3.174358 2.022801
6.801763 3.165123 2.007853
6.880707 3.277521 2.080081
7.263571 3.302537 2.295794
7.413512 3.042938 2.546997
7.507141 3.136942 2.402337
7.885601 3.359687 2.568555
7.948748 3.370346 2.338071
7.927943 3.248016 2.616339
8.235279 3.240886 2.717824
8.501825 3.496953 2.389877
8.202014 3.331574 2.331432
8.611342 3.494959 2.119063
8.607236 3.456871 2.383689
8.955226 3.582043 2.065937
8.843028 3.678817 1.969977
8.982982 3.477144 1.768909
9.149950 3.529597 1.780924
9.416734 3.705760 1.369998
9.603159 3.821729 1.224315
9.718048 3.759057 1.165335
9.784857 3.797749 1.053040
9.885407 4.032733 0.740755
9.988282 4.043155 0.712114
10.108547 3.951566 0.651016
10.289622 3.793938 0.567540
10.155583 4.080788 0.486417
10.405423 4.174398 0.442113
10.459800 4.056858 0.199408
10.614358 4.122626 0.122215
10.832012 4.079713 -0.180551
10.874438 4.428481 -0.535416
10.944897 4.504325 -0.428578
11.258918 4.483094 -0.797528
11.344319 4.511973 -0.861523
11.405698 4.309541 -0.921512
11.594576 4.296040 -0.968528
11.450486 4.507705 -0.910901
11.658327 4.654414 -1.485582
11.782535 4.648535 -1.464295
12.048892 4.671284 -1.685849
12.025362 4.646072 -1.562898
-7.939089 1.475968 2.021870
-7.678961 1.300436 2.096340
-7.576121 1.240990 2.068877
-7.357860 1.336086 2.216774
-7.311415 1.357579 2.065594
-7.068064 1.318611 2.365171
-6.958028 1.446070 2.246660
-6.726200 1.473317 2.349821
-6.665210 1.346493 2.364955
-6.492099 1.444693 2.417993
-6.223456 1.603862 2.688992
-6.104874 1.440884 2.448096
-6.062005 1.476220 2.767147
-5.614040 1.558313 2.877152
-5.619422 1.527946 2.790671
-5.341606 1.431942 2.835896
-5.313262 1.435998 2.803875
-5.058907 1.405067 3.169576
-4.840020 1.400156 3.291791
-4.530900 1.537347 3.236656
-4.487136 1.527698 3.169401
-4.291610 1.545427 3.282315
-4.252492 1.597816 3.393984
-4.040237 1.477666 3.512389
-3.942824 1.528874 3.360939
-3.847998 1.662199 3.410821
-3.554970 1.718451 3.795577
-3.343650 1.362723 3.691757
-3.251466 1.714870 3.708554
-3.122212 1.781917 3.769511
-2.946560 1.683922 3.699117
-2.664018 1.792630 3.945159
-2.541494 1.819387 4.063662
-2.521148 1.740794 3.938441
-2.128306 1.692288 4.143808
-2.099664 1.637401 4.075305
-1.842755 1.763882 4.523863
-1.691654 1.810770 4.491118
-0.444613 1.793170 4.683000
-0.509862 1.937179 4.649312
-0.174571 1.929202 4.706240
0.064009 1.825998 4.897025
-0.024728 2.110765 4.661210
0.364483 1.983191 4.820730
0.598472 1.984450 4.895140
0.580332 2.204384 4.744030
0.811383 1.975631 4.820460
0.956126 2.050376 4.532557
1.087629 2.188392 4.691908
1.092365 1.999089 4.821212
1.426772 2.057667 4.518411
1.522672 2.094536 4.460264
1.400323 2.044328 4.459182
1.736995 2.145327 4.243188
1.816184 2.313447 4.014827
1.887450 2.419140 4.135581
2.104644 2.627657 3.808624
2.219487 2.533925 3.727122
2.265465 2.393557 3.749126
2.523138 2.663748 3.437029
2.562184 2.467397 3.394309
2.780917 2.487979 3.223676
2.826400 2.728656 3.207282
2.968046 2.655224 3.119829
3.123134 2.663417 3.089786
3.346361 2.862473 2.740286
3.367519 2.762401 2.555465
3.466372 2.801614 2.417633
3.707707 2.847194 2.370216
3.559359 2.854537 2.439627
3.758684 2.900989 2.332654
3.986868 2.904261 2.159976
4.037662 2.790704 2.100135
4.182837 2.982721 1.832737
4.381891 3.071771 1.734087
4.594255 3.291946 1.474765
4.557679 2.972446 1.545787
4.783099 3.202243 1.397450
4.875785 3.319968 1.204194
5.006796 3.196698 1.293552
5.065598 3.106403 1.263576
5.229748 3.327136 1.419555
5.282314 3.363116 1.339429
5.468092 3.371678 1.525700
5.708069 3.527968 1.474009
5.894304 3.408742 1.540272
6.136578 3.433721 1.669174
6.496447 3.254138 1.962490
6.625023 3.300595 1.996684
6.896523 3.431816 2.165320
6.748668 3.484523 2.239296
7.005327 3.683490 1.993650
7.356482 3.518305 2.239109
7.514766 3.470968 2.294475
7.535055 3.388482 2.293320
7.657070 3.368296 2.237391
7.923657 3.341032 2.542360
7.815185 3.422107 2.426277
8.217498 3.457257 2.380057
8.159008 3.465635 2.498484
8.497294 3.607963 2.221692
8.541349 3.746047 2.161084
8.402205 3.687587 2.217622
8.791252 3.627619 1.923258
8.849452 3.758425 1.852024
8.942136 3.844092 1.781842
9.061245 3.633376 1.714941
9.225432 3.871111 1.619586
9.395810 3.883732 1.552936
9.604319 3.865144 1.267729
9.594029 4.025492 1.062324
9.556130 3.997121 1.251065
10.049921 4.165648 0.768419
9.931917 4.082210 0.724771
9.930961 4.149119 0.486581
10.255822 4.155843 0.598947
10.299577 4.310882 0.352075
10.298694 4.276741 0.231353
10.483570 4.459420 0.123939
10.856778 4.527148 -0.260700
10.883780 4.509186 -0.468278
11.043068 4.533551 -0.520269
11.130342 4.539724 -0.584889
11.163171 4.502415 -0.705606
11.341648 4.788861 -0.842819
11.388740 4.711975 -1.035112
11.655503 4.768329 -1.176765
11.871537 4.479569 -1.365071
11.795627 4.888114 -1.500207
12.063677 4.954366 -1.647039
12.087869 4.873496 -1.670011
-7.917172 1.336776 2.007219
-7.648471 1.474563 2.236663
-7.480632 1.623474 2.239984
-7.455273 1.742556 2.133655
-7.319353 1.640527 2.022402
-6.898198 1.484510 2.187438
-6.854144 1.552790 2.553063
-6.819681 1.634134 2.281767
-6.401948 1.539101 2.362031
-6.212238 1.514384 2.716229
-6.181519 1.565299 2.577208
-5.987941 1.520036 2.635845
-5.974316 1.820600 2.822193
-5.841826 1.668549 2.577681
-5.622480 1.660718 2.977434
-5.305113 1.753920 2.849945
-5.287458 1.810373 2.898639
-4.930496 1.747086 3.042097
-4.728608 1.612668 3.098209
-4.689909 1.716153 3.255228
-4.639486 1.823813 3.257551
-4.285227 1.648028 3.476429
-4.066118 1.606626 3.476212
-4.098399 1.823834 3.419935
-3.966656 1.690325 3.591887
-3.919738 1.725078 3.553618
-3.648934 1.728732 3.483634
-3.424084 1.789665 3.911134
-3.021905 1.554818 3.882269
-2.993566 1.861011 3.998345
-2.802047 1.689432 4.052341
-2.698128 1.828945 4.019850
-2.686620 1.871605 4.079445
-2.307896 1.831898 4.089904
-2.438974 1.999475 4.120289
-2.158651 1.885376 4.103460
-2.035804 2.058131 4.174726
-1.770450 1.879719 4.211779
-0.374948 1.955022 4.781726
-0.339971 2.156097 4.612326
-0.160487 1.907403 4.722116
-0.055145 2.120497 4.614788
0.007531 2.069484 4.779502
0.136486 2.102435 4.912214
0.484519 2.069164 4.890754
0.588417 2.137644 4.786215
0.762541 2.237490 4.690360
0.940248 2.100744 4.830759
0.985201 2.209502 4.694286
1.124881 2.290867 4.603925
1.310458 2.273410 4.370311
1.563783 2.457589 4.404384
1.420835 2.318857 4.414679
1.515050 2.515974 4.161603
1.797518 2.504334 4.049903
1.970011 2.576983 3.833843
2.111121 2.713155 3.681647
2.151941 2.631176 3.676572
2.285982 2.800389 3.612280
2.479989 2.611210 3.617862
2.478595 2.564333 3.514540
2.822474 2.721225 3.401780
2.946132 2.784221 3.128011
2.991451 3.009313 3.027493
2.991175 2.836443 3.146395
2.979239 2.799305 3.098952
3.368385 2.895713 2.712001
3.425536 3.010316 2.538177
3.699034 3.042156 2.473493
3.688174 3.132584 2.365755
3.930269 3.141993 2.130896
3.992823 3.008088 2.197806
4.095990 3.018586 1.990720
4.059686 3.027080 2.137814
4.440663 3.178429 1.796475
4.667801 3.279719 1.664838
4.564234 3.342831 1.409666
4.682380 3.308124 1.734856
4.685657 3.471673 1.666607
4.941625 3.452762 1.230251
5.238622 3.402689 1.235491
5.425876 3.530710 1.379187
5.619600 3.492292 1.440278
5.602738 3.477018 1.367426
6.049186 3.357862 1.940333
6.084052 3.450932 1.861095
6.150270 3.576082 1.891950
6.391403 3.490125 1.837264
6.435859 3.359953 1.990855
6.610547 3.707289 1.923319
6.642517 3.529639 2.119488
6.996802 3.598813 2.122899
7.358850 3.594257 2.252865
7.267593 3.482955 2.178686
7.349238 3.562877 2.217265
7.637050 3.456170 2.558232
7.689568 3.718675 2.151263
7.886764 3.555987 2.494031
8.146021 3.698127 2.436269
8.257766 3.852349 1.947405
8.352245 3.685436 2.350798
8.646322 3.835292 2.115394
8.664335 3.745202 2.042285
8.876964 3.786763 2.027281
8.964071 3.964340 1.746675
8.968904 3.741409 1.992500
8.971105 3.857749 1.859663
9.215720 3.885945 1.502119
9.393925 4.008520 1.184777
9.367740 4.055183 1.432971
9.762461 4.257162 1.075837
9.747949 3.965926 0.970742
9.939674 4.284578 0.662831
10.127547 4.311143 0.558402
10.131813 4.317690 0.570020
10.232898 4.390144 0.435274
10.378077 4.404044 0.225259
10.582420 4.324413 0.114783
10.580508 4.604239 0.005888
10.684860 4.303504 -0.040158
10.839304 4.616667 -0.318627
10.957940 4.568328 -0.536170
11.183597 4.536448 -0.573697
11.036341 4.636910 -0.623073
11.360082 4.822810 -0.818508
11.409783 4.987081 -1.226504
11.719388 4.627199 -1.119963
11.595075 4.933085 -1.232856
11.795257 4.719437 -1.430279
12.033745 4.847208 -1.402788
12.065519 4.850415 -1.600011
-8.021830 1.560781 2.000469
-8.039048 1.557520 1.743726
-7.955154 1.562466 1.779317
-7.911331 1.672951 1.768053
-7.570175 1.612338 2.179849
-7.391512 1.526822 2.301049
-6.998131 1.506975 2.370479
-6.979643 1.546462 2.184842
-7.037381 1.740237 2.003975
-6.772282 1.606977 2.425948
-6.628254 1.862031 2.357013
-6.398394 1.564155 2.592419
-6.281599 1.671132 2.623707
-6.046388 1.840340 2.590335
-5.812258 1.677399 2.746006
-5.590276 1.736726 2.738260
-5.455758 1.841043 2.895995
-5.571890 1.692751 2.892730
-5.363854 1.938834 2.980654
-5.073085 1.766465 2.976006
-5.016345 1.845325 3.001756
-4.560169 1.711161 3.420909
-4.556152 1.922347 3.204606
-4.357667 1.910768 3.354405
-4.168263 2.031799 3.516308
-4.071282 1.834646 3.420541
-3.981241 1.831002 3.360818
-3.807611 1.898164 3.429596
-3.623156 2.066585 3.660299
-3.689489 2.056308 3.519659
-3.155600 1.917766 3.681472
-3.203168 2.130412 3.746422
-2.932510 1.831866 3.943685
-2.830947 1.878048 3.960364
-2.655233 2.128890 4.066747
-2.476478 2.218164 3.957195
-2.318668 2.088589 4.130139
-2.347553 2.000601 4.226174
-2.129849 2.032565 4.196494
-1.862218 2.132502 4.320416
-1.673711 1.908796 4.253650
-1.492274 2.164275 4.434620
-1.195691 2.143883 4.482949
-0.562146 2.143199 4.652307
-0.475174 2.235219 4.784253
-0.286729 2.103988 4.705885
-0.141591 2.127024 4.940497
-0.042358 2.181233 4.995521
0.019528 2.257079 4.785118
0.445122 2.323666 4.669004
0.424524 2.513541 4.616811
0.703269 2.214027 4.817415
0.756077 2.355225 4.597688
0.762205 2.202157 4.821816
0.963267 2.675046 4.439749
1.008906 2.513374 4.443505
1.164843 2.359973 4.552541
1.308393 2.496040 4.230664
1.392083 2.734651 4.197570
1.736042 2.806101 3.897616
1.610902 2.575594 3.979032
1.853636 2.617291 4.201500
1.895535 2.782998 3.713079
2.297333 2.865836 3.674371
2.178860 2.842191 3.682911
2.432308 2.953130 3.378563
2.482091 2.833588 3.651662
2.646465 2.759349 3.389785
2.692415 2.845056 3.149616
3.041564 2.977536 2.964046
3.087625 3.012120 2.797693
3.106048 3.118982 2.666980
3.426663 3.338695 2.584817
3.425650 3.039983 2.478601
3.479392 3.099744 2.823715
3.585671 3.169635 2.365742
3.779412 3.358699 2.298745
3.702946 3.488371 2.334643
3.917317 3.372800 2.254231
4.190869 3.281010 1.892075
4.214680 3.452917 1.767721
4.590691 3.307700 1.938562
4.766756 3.423609 1.374358
4.788656 3.433650 1.327797
4.942294 3.766069 1.307701
5.093517 3.466507 1.287882
5.285938 3.472897 1.541179
5.228777 3.652504 1.363150
5.505244 3.490304 1.497203
5.563116 3.733893 1.317828
5.864256 3.854600 1.634111
6.065871 3.789751 1.885962
6.242608 3.675254 1.778795
6.167098 3.435904 1.867457
6.411173 3.615910 1.823606
6.676634 3.494198 2.131288
6.663421 3.574417 2.021291
6.716464 3.910382 1.857527
7.193284 3.675774 2.364103
7.265005 3.873891 2.134054
7.400152 3.616368 2.325154
7.734601 3.650020 2.448147
7.807903 3.910354 2.169818
7.857621 3.932590 2.390133
8.168469 3.923850 2.145431
8.101349 3.959686 1.971964
8.257076 4.088803 1.870702
8.501189 3.830553 2.172213
8.573730 4.048897 2.156012
8.772135 3.995346 1.857114
8.870306 3.971033 1.622065
8.971104 3.844956 1.793473
9.092129 4.254784 1.506152
9.160583 3.948624 1.605164
9.467964 4.097978 1.359520
9.464212 4.269084 1.144691
9.363315 4.419241 1.013264
9.867788 4.516694 0.829158
9.773036 4.333433 0.877678
9.964530 4.482824 0.640985
10.009963 4.346198 0.809846
10.252394 4.385120 0.381100
10.389826 4.468473 0.399412
10.338388 4.627780 0.215426
10.634203 4.596890 -0.100315
10.812965 4.675170 -0.223130
10.807604 4.683195 -0.307744
11.019548 4.680513 -0.384339
10.978648 4.754007 -0.564055
11.184376 4.981733 -0.806746
11.298924 5.070593 -0.841163
11.440432 4.888379 -0.928410
11.557191 4.830552 -0.982598
11.606333 4.979699 -1.282517
11.803935 4.923798 -1.212320
12.059291 5.018865 -1.580524
12.109519 5.145947 -1.461229
12.087415 5.098841 -1.663930
-7.824213 1.846527 1.947816
-7.917686 1.984034 1.980740
-7.471474 1.639576 2.376633
-7.476669 1.721545 2.064410
-7.381614 1.780655 2.141092
-7.079766 2.019001 2.388452
-6.881222 1.939894 2.437710
-6.780834 1.847276 2.412832
-6.464535 1.842857 2.563191
-6.242389 1.694547 2.669224
-6.180085 1.715384 2.619401
-6.065311 1.940115 2.755474
-5.946834 1.997996 2.852439
-5.653296 1.876152 2.957418
-5.465661 1.737137 2.997414
-5.466639 1.906004 2.999476
-5.126426 1.921130 3.168424
-5.227376 1.963442 2.928951
-4.741977 1.833541 3.284458
-4.899905 1.907913 3.160556
-4.597807 2.168969 3.413578
-4.332542 1.861354 3.426864
-4.208947 2.089982 3.453814
-4.203757 2.078361 3.460161
-4.053288 2.101291 3.297981
-3.816473 2.382872 3.523139
-3.446715 2.110951 3.857159
-3.608248 2.044560 3.746115
-3.342113 2.064610 3.886018
-3.034483 2.015943 3.945737
-3.068497 2.240049 3.742674
-2.840303 2.125309 3.949048
-2.610937 2.058862 4.092753
-2.305592 2.178005 4.184351
-2.417317 2.223536 4.133558
-2.166928 2.048420 4.234433
-2.037380 2.240259 4.240583
-1.729924 2.110049 4.445713
-1.489382 2.301858 4.455852
-1.367559 2.253657 4.432445
-1.361769 2.224035 4.450021
-1.158683 2.101189 4.625464
-1.074191 2.289171 4.540171
-0.929598 2.477048 4.487977
-0.631308 2.382305 4.574410
-0.480434 2.437891 4.582070
-0.074677 2.364372 4.771277
-0.208132 2.292600 4.672317
0.064048 2.428961 4.602801
0.328109 2.316348 4.783385
0.391323 2.390856 4.698858
0.518928 2.650012 4.711784
0.545515 2.577468 4.649279
0.802523 2.688406 4.559437
0.992225 2.480152 4.582067
1.024203 2.604055 4.411396
1.067763 2.531643 4.348809
1.520094 2.705658 4.296196
1.397819 2.629093 4.249454
1.723789 2.803294 4.031349
1.651521 2.955537 3.944121
1.703620 2.946993 3.835457
1.808453 2.669604 3.956673
2.121111 3.041849 3.412711
2.188553 2.991330 3.585279
2.415337 3.072957 3.348344
2.366768 3.075308 3.407471
2.547499 2.991837 3.439181
2.593984 3.030546 3.454579
2.911818 3.138712 3.201564
3.095144 2.990861 2.867704
3.071644 3.178885 2.853950
3.426297 3.393802 2.572488
3.429886 3.174662 2.748425
3.413000 3.251904 2.472951
3.570414 3.279271 2.288606
3.926087 3.467967 2.164145
4.016003 3.485996 2.067594
4.187511 3.564517 1.957526
4.118692 3.422785 2.044777
4.305326 3.544634 1.688747
4.361379 3.510752 1.708457
4.521914 3.491780 1.591298
4.644742 3.495713 1.459163
4.892018 3.618560 1.109466
5.085417 3.559147 1.246597
5.132992 3.801494 1.221524
5.199471 3.853844 1.226349
5.533128 3.748876 1.470917
5.459881 3.961740 1.354867
5.735839 3.785999 1.628891
6.098540 3.604538 1.822868
5.937665 3.666044 1.684983
6.062989 3.838622 1.736900
6.297000 3.824960 1.834891
6.746429 3.837925 2.008459
6.719441 4.116151 1.926289
6.912498 3.917140 1.910382
7.096212 3.879316 2.229136
7.300933 3.969885 2.074591
7.488231 3.984814 2.321229
7.499233 3.929390 2.351244
7.800650 3.972622 2.221927
7.816327 3.924023 2.358014
7.805737 3.907624 2.224210
8.154460 4.071992 2.008208
8.183595 4.131915 1.976308
8.526434 4.042461 2.266160
8.527284 4.056963 2.061073
8.587560 4.116218 1.888306
8.723750 4.319373 1.683297
8.857822 4.097742 1.719250
9.185367 4.238058 1.600599
9.286704 4.443944 1.253003
9.195829 4.426864 1.258097
9.666734 4.608634 0.905661
9.495785 4.459790 0.874827
9.756788 4.490859 0.757154
9.714419 4.410161 0.824112
9.964390 4.589719 0.664152
9.986446 4.687278 0.605962
10.260033 4.617238 0.363610
10.319847 4.805059 0.180555
10.417439 4.774129 0.230048
10.555467 4.767193 -0.100733
10.728292 4.886395 -0.327297
10.805444 4.775413 -0.463427
10.941870 4.794603 -0.209640
11.117635 4.980814 -0.695951
11.172521 4.913592 -0.599297
11.220367 5.095754 -0.870867
11.408821 5.201126 -0.907953
11.496932 5.106356 -1.237163
11.605548 5.005880 -1.038585
11.879717 5.223054 -1.498011
11.914873 5.141680 -1.577832
-8.105294 1.818571 1.968299
-7.983064 1.926799 2.156097
-7.579419 1.980351 2.238572
-7.578465 2.065185 2.238536
-7.358530 1.910115 2.088984
-7.214332 1.978016 2.251087
-7.127087 1.905791 2.489010
-6.869400 1.939946 2.531983
-6.656246 1.872417 2.527702
-6.727399 2.111588 2.499801
-6.414297 2.121850 2.624912
-6.242817 2.203255 2.780634
-6.054474 2.083400 2.822452
-5.892370 2.039614 2.769164
-5.734543 2.062501 2.836935
-5.876591 2.073484 2.752001
-5.461779 2.240681 2.803655
-5.155346 2.082207 3.095728
-5.060604 1.963161 3.128730
-5.066194 2.228579 3.035043
-4.862457 2.253913 3.189524
-4.450828 1.977113 3.355161
-4.526304 2.087733 3.289143
-4.345222 2.159167 3.366010
-4.183220 2.257539 3.530502
-4.114424 2.086574 3.567757
